ply
format ascii 1.0
comment Created by Open3D
element vertex 1734
property double x
property double y
property double z
property uchar red
property uchar green
property uchar blue
end_header
0.17 -1.53 1.05 255 255 255
0.17 -1.53 1.08 255 255 255
0.17 -1.53 1.11 255 255 255
0.17 -1.53 1.14 255 255 255
0.17 -1.53 1.17 255 255 255
0.17 -1.53 1.2 255 255 255
0.17 -1.5 0.3 255 255 255
0.17 -1.5 0.33 255 255 255
0.17 -1.5 0.36 255 255 255
0.17 -1.5 0.39 255 255 255
0.17 -1.5 0.42 255 255 255
0.17 -1.5 0.45 255 255 255
0.17 -1.5 0.48 255 255 255
0.17 -1.5 0.51 255 255 255
0.17 -1.5 0.54 255 255 255
0.17 -1.5 0.57 255 255 255
0.17 -1.5 0.6 255 255 255
0.17 -1.5 0.63 255 255 255
0.17 -1.5 0.66 255 255 255
0.17 -1.5 0.69 255 255 255
0.17 -1.5 0.72 255 255 255
0.17 -1.5 0.75 255 255 255
0.17 -1.5 0.78 255 255 255
0.17 -1.5 0.81 255 255 255
0.17 -1.5 0.99 255 255 255
0.17 -1.5 1.02 255 255 255
0.17 -1.5 1.05 255 255 255
0.17 -1.5 1.08 255 255 255
0.17 -1.5 1.11 255 255 255
0.17 -1.5 1.14 255 255 255
0.17 -1.5 1.17 255 255 255
0.17 -1.5 1.2 255 255 255
0.17 -1.5 1.23 255 255 255
0.17 -1.5 1.26 255 255 255
0.17 -1.47 0.42 255 255 255
0.17 -1.47 0.45 255 255 255
0.17 -1.47 0.48 255 255 255
0.17 -1.47 0.51 255 255 255
0.17 -1.47 0.54 255 255 255
0.17 -1.47 0.57 255 255 255
0.17 -1.47 0.6 255 255 255
0.17 -1.47 0.63 255 255 255
0.17 -1.47 0.66 255 255 255
0.17 -1.47 0.69 255 255 255
0.17 -1.47 0.72 255 255 255
0.17 -1.47 0.75 255 255 255
0.17 -1.47 0.78 255 255 255
0.17 -1.47 0.81 255 255 255
0.17 -1.47 0.84 255 255 255
0.17 -1.47 0.87 255 255 255
0.17 -1.47 0.9 255 255 255
0.17 -1.47 0.93 255 255 255
0.17 -1.47 0.96 255 255 255
0.17 -1.47 0.99 255 255 255
0.17 -1.47 1.02 255 255 255
0.17 -1.47 1.05 255 255 255
0.17 -1.47 1.08 255 255 255
0.17 -1.47 1.11 255 255 255
0.17 -1.47 1.14 255 255 255
0.17 -1.47 1.17 255 255 255
0.17 -1.47 1.2 255 255 255
0.17 -1.47 1.23 255 255 255
0.17 -1.47 1.26 255 255 255
0.17 -1.44 0.45 255 255 255
0.17 -1.44 0.48 255 255 255
0.17 -1.44 0.51 255 255 255
0.17 -1.44 0.54 255 255 255
0.17 -1.44 0.57 255 255 255
0.17 -1.44 0.6 255 255 255
0.17 -1.44 0.63 255 255 255
0.17 -1.44 0.66 255 255 255
0.17 -1.44 0.69 255 255 255
0.17 -1.44 0.72 255 255 255
0.17 -1.44 0.75 255 255 255
0.17 -1.44 0.78 255 255 255
0.17 -1.44 0.81 255 255 255
0.17 -1.44 0.84 255 255 255
0.17 -1.44 0.87 255 255 255
0.17 -1.44 0.9 255 255 255
0.17 -1.44 0.93 255 255 255
0.17 -1.44 0.96 255 255 255
0.17 -1.44 0.99 255 255 255
0.17 -1.44 1.02 255 255 255
0.17 -1.44 1.05 255 255 255
0.17 -1.44 1.08 255 255 255
0.17 -1.44 1.11 255 255 255
0.17 -1.44 1.14 255 255 255
0.17 -1.44 1.17 255 255 255
0.17 -1.44 1.2 255 255 255
0.17 -1.44 1.23 255 255 255
0.17 -1.44 1.26 255 255 255
0.17 -1.44 1.29 255 255 255
0.17 -1.41 0.57 255 255 255
0.17 -1.41 0.6 255 255 255
0.17 -1.41 0.63 255 255 255
0.17 -1.41 0.66 255 255 255
0.17 -1.41 0.69 255 255 255
0.17 -1.41 0.72 255 255 255
0.17 -1.41 0.75 255 255 255
0.17 -1.41 0.78 255 255 255
0.17 -1.41 0.81 255 255 255
0.17 -1.41 0.84 255 255 255
0.17 -1.41 0.87 255 255 255
0.17 -1.41 0.9 255 255 255
0.17 -1.41 0.93 255 255 255
0.17 -1.41 0.96 255 255 255
0.17 -1.41 0.99 255 255 255
0.17 -1.41 1.02 255 255 255
0.17 -1.41 1.05 255 255 255
0.17 -1.41 1.08 255 255 255
0.17 -1.41 1.11 255 255 255
0.17 -1.41 1.14 255 255 255
0.17 -1.41 1.17 255 255 255
0.17 -1.41 1.2 255 255 255
0.17 -1.41 1.23 255 255 255
0.17 -1.41 1.26 255 255 255
0.17 -1.41 1.29 255 255 255
0.17 -1.41 1.32 255 255 255
0.17 -1.38 0.63 255 255 255
0.17 -1.38 0.66 255 255 255
0.17 -1.38 0.69 255 255 255
0.17 -1.38 0.72 255 255 255
0.17 -1.38 0.75 255 255 255
0.17 -1.38 0.78 255 255 255
0.17 -1.38 0.81 255 255 255
0.17 -1.38 0.84 255 255 255
0.17 -1.38 0.87 255 255 255
0.17 -1.38 0.9 255 255 255
0.17 -1.38 0.93 255 255 255
0.17 -1.38 0.96 255 255 255
0.17 -1.38 0.99 255 255 255
0.17 -1.38 1.05 255 255 255
0.17 -1.38 1.08 255 255 255
0.17 -1.38 1.11 255 255 255
0.17 -1.38 1.14 255 255 255
0.17 -1.38 1.17 255 255 255
0.17 -1.38 1.2 255 255 255
0.17 -1.38 1.23 255 255 255
0.17 -1.38 1.26 255 255 255
0.17 -1.38 1.29 255 255 255
0.17 -1.38 1.32 255 255 255
0.17 -1.38 1.38 255 255 255
0.17 -1.38 1.47 255 255 255
0.17 -1.38 1.5 255 255 255
0.17 -1.35 0.69 255 255 255
0.17 -1.35 0.72 255 255 255
0.17 -1.35 0.75 255 255 255
0.17 -1.35 0.78 255 255 255
0.17 -1.35 0.81 255 255 255
0.17 -1.35 0.84 255 255 255
0.17 -1.35 0.87 255 255 255
0.17 -1.35 0.9 255 255 255
0.17 -1.35 1.08 255 255 255
0.17 -1.35 1.11 255 255 255
0.17 -1.35 1.14 255 255 255
0.17 -1.35 1.17 255 255 255
0.17 -1.35 1.2 255 255 255
0.17 -1.35 1.23 255 255 255
0.17 -1.35 1.26 255 255 255
0.17 -1.35 1.29 255 255 255
0.17 -1.35 1.32 255 255 255
0.17 -1.35 1.35 255 255 255
0.17 -1.35 1.38 255 255 255
0.17 -1.35 1.41 255 255 255
0.17 -1.35 1.44 255 255 255
0.17 -1.35 1.47 255 255 255
0.17 -1.35 1.5 255 255 255
0.17 -1.35 1.53 255 255 255
0.17 -1.35 1.56 255 255 255
0.17 -1.32 0.75 255 255 255
0.17 -1.32 0.78 255 255 255
0.17 -1.32 0.81 255 255 255
0.17 -1.32 0.84 255 255 255
0.17 -1.32 1.11 255 255 255
0.17 -1.32 1.14 255 255 255
0.17 -1.32 1.17 255 255 255
0.17 -1.32 1.2 255 255 255
0.17 -1.32 1.23 255 255 255
0.17 -1.32 1.26 255 255 255
0.17 -1.32 1.29 255 255 255
0.17 -1.32 1.32 255 255 255
0.17 -1.32 1.35 255 255 255
0.17 -1.32 1.38 255 255 255
0.17 -1.32 1.41 255 255 255
0.17 -1.32 1.44 255 255 255
0.17 -1.32 1.47 255 255 255
0.17 -1.32 1.5 255 255 255
0.17 -1.32 1.53 255 255 255
0.17 -1.32 1.56 255 255 255
0.17 -1.32 1.59 255 255 255
0.17 -1.29 1.14 255 255 255
0.17 -1.29 1.17 255 255 255
0.17 -1.29 1.2 255 255 255
0.17 -1.29 1.23 255 255 255
0.17 -1.29 1.26 255 255 255
0.17 -1.29 1.29 255 255 255
0.17 -1.29 1.32 255 255 255
0.17 -1.29 1.35 255 255 255
0.17 -1.29 1.38 255 255 255
0.17 -1.29 1.41 255 255 255
0.17 -1.29 1.44 255 255 255
0.17 -1.29 1.47 255 255 255
0.17 -1.29 1.5 255 255 255
0.17 -1.29 1.53 255 255 255
0.17 -1.29 1.56 255 255 255
0.17 -1.29 1.59 255 255 255
0.17 -1.29 1.62 255 255 255
0.17 -1.26 1.14 255 255 255
0.17 -1.26 1.17 255 255 255
0.17 -1.26 1.2 255 255 255
0.17 -1.26 1.23 255 255 255
0.17 -1.26 1.26 255 255 255
0.17 -1.26 1.29 255 255 255
0.17 -1.26 1.32 255 255 255
0.17 -1.26 1.35 255 255 255
0.17 -1.26 1.38 255 255 255
0.17 -1.26 1.41 255 255 255
0.17 -1.26 1.44 255 255 255
0.17 -1.26 1.47 255 255 255
0.17 -1.26 1.5 255 255 255
0.17 -1.26 1.53 255 255 255
0.17 -1.26 1.56 255 255 255
0.17 -1.26 1.59 255 255 255
0.17 -1.26 1.62 255 255 255
0.17 -1.23 1.23 255 255 255
0.17 -1.23 1.41 255 255 255
0.17 -1.23 1.44 255 255 255
0.17 -1.23 1.47 255 255 255
0.17 -1.23 1.5 255 255 255
0.17 -1.23 1.53 255 255 255
0.17 -1.23 1.56 255 255 255
0.17 -1.23 1.59 255 255 255
0.17 -1.2 1.44 255 255 255
0.17 -1.2 1.47 255 255 255
0.17 -1.2 1.5 255 255 255
0.17 -1.2 1.53 255 255 255
0.17 -1.2 1.56 255 255 255
0.17 -1.17 1.44 255 255 255
0.17 -1.17 1.47 255 255 255
0.17 -1.17 1.5 255 255 255
0.17 -1.17 1.53 255 255 255
0.17 -1.17 1.56 255 255 255
0.2 -1.65 0 255 255 255
0.2 -1.65 0.03 255 255 255
0.2 -1.65 0.06 255 255 255
0.2 -1.65 0.09 255 255 255
0.2 -1.62 0 255 255 255
0.2 -1.62 0.03 255 255 255
0.2 -1.62 0.06 255 255 255
0.2 -1.62 0.09 255 255 255
0.2 -1.59 0 255 255 255
0.2 -1.59 0.42 255 255 255
0.2 -1.56 0.15 255 255 255
0.2 -1.56 0.18 255 255 255
0.2 -1.56 0.21 255 255 255
0.2 -1.56 0.24 255 255 255
0.2 -1.56 0.27 255 255 255
0.2 -1.56 0.3 255 255 255
0.2 -1.56 0.39 255 255 255
0.2 -1.56 0.42 255 255 255
0.2 -1.56 0.45 255 255 255
0.2 -1.56 0.48 255 255 255
0.2 -1.56 1.05 255 255 255
0.2 -1.56 1.08 255 255 255
0.2 -1.56 1.11 255 255 255
0.2 -1.56 1.14 255 255 255
0.2 -1.56 1.17 255 255 255
0.2 -1.53 0.24 255 255 255
0.2 -1.53 0.27 255 255 255
0.2 -1.53 0.3 255 255 255
0.2 -1.53 0.33 255 255 255
0.2 -1.53 0.36 255 255 255
0.2 -1.53 0.39 255 255 255
0.2 -1.53 0.42 255 255 255
0.2 -1.53 0.45 255 255 255
0.2 -1.53 0.48 255 255 255
0.2 -1.53 0.51 255 255 255
0.2 -1.53 0.54 255 255 255
0.2 -1.53 0.57 255 255 255
0.2 -1.53 0.6 255 255 255
0.2 -1.53 0.63 255 255 255
0.2 -1.53 0.66 255 255 255
0.2 -1.53 0.69 255 255 255
0.2 -1.53 0.72 255 255 255
0.2 -1.53 0.75 255 255 255
0.2 -1.53 0.78 255 255 255
0.2 -1.53 0.81 255 255 255
0.2 -1.53 0.84 255 255 255
0.2 -1.53 0.87 255 255 255
0.2 -1.53 0.9 255 255 255
0.2 -1.53 0.93 255 255 255
0.2 -1.53 0.96 255 255 255
0.2 -1.53 0.99 255 255 255
0.2 -1.53 1.02 255 255 255
0.2 -1.53 1.05 255 255 255
0.2 -1.53 1.08 255 255 255
0.2 -1.53 1.11 255 255 255
0.2 -1.53 1.14 255 255 255
0.2 -1.53 1.17 255 255 255
0.2 -1.53 1.2 255 255 255
0.2 -1.53 1.23 255 255 255
0.2 -1.5 0.27 255 255 255
0.2 -1.5 0.3 255 255 255
0.2 -1.5 0.33 255 255 255
0.2 -1.5 0.36 255 255 255
0.2 -1.5 0.39 255 255 255
0.2 -1.5 0.42 255 255 255
0.2 -1.5 0.45 255 255 255
0.2 -1.5 0.48 255 255 255
0.2 -1.5 0.51 255 255 255
0.2 -1.5 0.54 255 255 255
0.2 -1.5 0.57 255 255 255
0.2 -1.5 0.6 255 255 255
0.2 -1.5 0.63 255 255 255
0.2 -1.5 0.66 255 255 255
0.2 -1.5 0.69 255 255 255
0.2 -1.5 0.72 255 255 255
0.2 -1.5 0.75 255 255 255
0.2 -1.5 0.78 255 255 255
0.2 -1.5 0.81 255 255 255
0.2 -1.5 0.84 255 255 255
0.2 -1.5 0.87 255 255 255
0.2 -1.5 0.9 255 255 255
0.2 -1.5 0.93 255 255 255
0.2 -1.5 0.96 255 255 255
0.2 -1.5 0.99 255 255 255
0.2 -1.5 1.02 255 255 255
0.2 -1.5 1.05 255 255 255
0.2 -1.5 1.08 255 255 255
0.2 -1.5 1.11 255 255 255
0.2 -1.5 1.14 255 255 255
0.2 -1.5 1.17 255 255 255
0.2 -1.5 1.2 255 255 255
0.2 -1.5 1.23 255 255 255
0.2 -1.5 1.26 255 255 255
0.2 -1.47 0.39 255 255 255
0.2 -1.47 0.42 255 255 255
0.2 -1.47 0.45 255 255 255
0.2 -1.47 0.48 255 255 255
0.2 -1.47 0.51 255 255 255
0.2 -1.47 0.54 255 255 255
0.2 -1.47 0.57 255 255 255
0.2 -1.47 0.6 255 255 255
0.2 -1.47 0.63 255 255 255
0.2 -1.47 0.66 255 255 255
0.2 -1.47 0.69 255 255 255
0.2 -1.47 0.72 255 255 255
0.2 -1.47 0.75 255 255 255
0.2 -1.47 0.78 255 255 255
0.2 -1.47 0.81 255 255 255
0.2 -1.47 0.84 255 255 255
0.2 -1.47 0.87 255 255 255
0.2 -1.47 0.9 255 255 255
0.2 -1.47 0.93 255 255 255
0.2 -1.47 0.96 255 255 255
0.2 -1.47 0.99 255 255 255
0.2 -1.47 1.02 255 255 255
0.2 -1.47 1.05 255 255 255
0.2 -1.47 1.08 255 255 255
0.2 -1.47 1.11 255 255 255
0.2 -1.47 1.14 255 255 255
0.2 -1.47 1.17 255 255 255
0.2 -1.47 1.2 255 255 255
0.2 -1.47 1.23 255 255 255
0.2 -1.47 1.26 255 255 255
0.2 -1.47 1.29 255 255 255
0.2 -1.44 0.42 255 255 255
0.2 -1.44 0.45 255 255 255
0.2 -1.44 0.48 255 255 255
0.2 -1.44 0.51 255 255 255
0.2 -1.44 0.54 255 255 255
0.2 -1.44 0.57 255 255 255
0.2 -1.44 0.6 255 255 255
0.2 -1.44 0.63 255 255 255
0.2 -1.44 0.66 255 255 255
0.2 -1.44 0.69 255 255 255
0.2 -1.44 0.72 255 255 255
0.2 -1.44 0.75 255 255 255
0.2 -1.44 0.78 255 255 255
0.2 -1.44 0.81 255 255 255
0.2 -1.44 0.84 255 255 255
0.2 -1.44 0.87 255 255 255
0.2 -1.44 0.9 255 255 255
0.2 -1.44 0.93 255 255 255
0.2 -1.44 0.96 255 255 255
0.2 -1.44 0.99 255 255 255
0.2 -1.44 1.02 255 255 255
0.2 -1.44 1.05 255 255 255
0.2 -1.44 1.08 255 255 255
0.2 -1.44 1.11 255 255 255
0.2 -1.44 1.14 255 255 255
0.2 -1.44 1.17 255 255 255
0.2 -1.44 1.2 255 255 255
0.2 -1.44 1.23 255 255 255
0.2 -1.44 1.26 255 255 255
0.2 -1.44 1.29 255 255 255
0.2 -1.44 1.32 255 255 255
0.2 -1.41 0.42 255 255 255
0.2 -1.41 0.45 255 255 255
0.2 -1.41 0.48 255 255 255
0.2 -1.41 0.51 255 255 255
0.2 -1.41 0.54 255 255 255
0.2 -1.41 0.57 255 255 255
0.2 -1.41 0.6 255 255 255
0.2 -1.41 0.63 255 255 255
0.2 -1.41 0.66 255 255 255
0.2 -1.41 0.69 255 255 255
0.2 -1.41 0.72 255 255 255
0.2 -1.41 0.75 255 255 255
0.2 -1.41 0.78 255 255 255
0.2 -1.41 0.81 255 255 255
0.2 -1.41 0.84 255 255 255
0.2 -1.41 0.87 255 255 255
0.2 -1.41 0.9 255 255 255
0.2 -1.41 0.93 255 255 255
0.2 -1.41 0.96 255 255 255
0.2 -1.41 0.99 255 255 255
0.2 -1.41 1.02 255 255 255
0.2 -1.41 1.05 255 255 255
0.2 -1.41 1.08 255 255 255
0.2 -1.41 1.11 255 255 255
0.2 -1.41 1.14 255 255 255
0.2 -1.41 1.17 255 255 255
0.2 -1.41 1.2 255 255 255
0.2 -1.41 1.23 255 255 255
0.2 -1.41 1.26 255 255 255
0.2 -1.41 1.29 255 255 255
0.2 -1.41 1.32 255 255 255
0.2 -1.41 1.35 255 255 255
0.2 -1.38 0.45 255 255 255
0.2 -1.38 0.51 255 255 255
0.2 -1.38 0.54 255 255 255
0.2 -1.38 0.57 255 255 255
0.2 -1.38 0.6 255 255 255
0.2 -1.38 0.63 255 255 255
0.2 -1.38 0.66 255 255 255
0.2 -1.38 0.69 255 255 255
0.2 -1.38 0.72 255 255 255
0.2 -1.38 0.75 255 255 255
0.2 -1.38 0.78 255 255 255
0.2 -1.38 0.81 255 255 255
0.2 -1.38 0.84 255 255 255
0.2 -1.38 0.87 255 255 255
0.2 -1.38 0.9 255 255 255
0.2 -1.38 0.93 255 255 255
0.2 -1.38 0.96 255 255 255
0.2 -1.38 0.99 255 255 255
0.2 -1.38 1.02 255 255 255
0.2 -1.38 1.05 255 255 255
0.2 -1.38 1.08 255 255 255
0.2 -1.38 1.11 255 255 255
0.2 -1.38 1.14 255 255 255
0.2 -1.38 1.17 255 255 255
0.2 -1.38 1.2 255 255 255
0.2 -1.38 1.23 255 255 255
0.2 -1.38 1.26 255 255 255
0.2 -1.38 1.29 255 255 255
0.2 -1.38 1.32 255 255 255
0.2 -1.38 1.35 255 255 255
0.2 -1.38 1.38 255 255 255
0.2 -1.38 1.41 255 255 255
0.2 -1.38 1.44 255 255 255
0.2 -1.38 1.47 255 255 255
0.2 -1.38 1.5 255 255 255
0.2 -1.38 1.53 255 255 255
0.2 -1.38 1.56 255 255 255
0.2 -1.35 0.66 255 255 255
0.2 -1.35 0.69 255 255 255
0.2 -1.35 0.72 255 255 255
0.2 -1.35 0.75 255 255 255
0.2 -1.35 0.78 255 255 255
0.2 -1.35 0.81 255 255 255
0.2 -1.35 0.84 255 255 255
0.2 -1.35 0.87 255 255 255
0.2 -1.35 0.9 255 255 255
0.2 -1.35 0.93 255 255 255
0.2 -1.35 0.96 255 255 255
0.2 -1.35 1.05 255 255 255
0.2 -1.35 1.08 255 255 255
0.2 -1.35 1.11 255 255 255
0.2 -1.35 1.14 255 255 255
0.2 -1.35 1.17 255 255 255
0.2 -1.35 1.2 255 255 255
0.2 -1.35 1.23 255 255 255
0.2 -1.35 1.26 255 255 255
0.2 -1.35 1.29 255 255 255
0.2 -1.35 1.32 255 255 255
0.2 -1.35 1.35 255 255 255
0.2 -1.35 1.38 255 255 255
0.2 -1.35 1.41 255 255 255
0.2 -1.35 1.44 255 255 255
0.2 -1.35 1.47 255 255 255
0.2 -1.35 1.5 255 255 255
0.2 -1.35 1.53 255 255 255
0.2 -1.32 0.69 255 255 255
0.2 -1.32 0.72 255 255 255
0.2 -1.32 0.75 255 255 255
0.2 -1.32 0.78 255 255 255
0.2 -1.32 0.81 255 255 255
0.2 -1.32 0.84 255 255 255
0.2 -1.32 0.87 255 255 255
0.2 -1.32 0.9 255 255 255
0.2 -1.32 1.08 255 255 255
0.2 -1.32 1.11 255 255 255
0.2 -1.32 1.14 255 255 255
0.2 -1.32 1.17 255 255 255
0.2 -1.32 1.2 255 255 255
0.2 -1.32 1.23 255 255 255
0.2 -1.32 1.26 255 255 255
0.2 -1.32 1.29 255 255 255
0.2 -1.32 1.32 255 255 255
0.2 -1.32 1.35 255 255 255
0.2 -1.32 1.38 255 255 255
0.2 -1.32 1.41 255 255 255
0.2 -1.32 1.44 255 255 255
0.2 -1.32 1.47 255 255 255
0.2 -1.32 1.5 255 255 255
0.2 -1.32 1.53 255 255 255
0.2 -1.32 1.56 255 255 255
0.2 -1.32 1.59 255 255 255
0.2 -1.29 1.11 255 255 255
0.2 -1.29 1.14 255 255 255
0.2 -1.29 1.17 255 255 255
0.2 -1.29 1.2 255 255 255
0.2 -1.29 1.23 255 255 255
0.2 -1.29 1.26 255 255 255
0.2 -1.29 1.29 255 255 255
0.2 -1.29 1.32 255 255 255
0.2 -1.29 1.35 255 255 255
0.2 -1.29 1.38 255 255 255
0.2 -1.29 1.41 255 255 255
0.2 -1.29 1.44 255 255 255
0.2 -1.29 1.47 255 255 255
0.2 -1.29 1.5 255 255 255
0.2 -1.29 1.53 255 255 255
0.2 -1.29 1.56 255 255 255
0.2 -1.29 1.59 255 255 255
0.2 -1.26 1.17 255 255 255
0.2 -1.26 1.2 255 255 255
0.2 -1.26 1.23 255 255 255
0.2 -1.26 1.26 255 255 255
0.2 -1.26 1.29 255 255 255
0.2 -1.26 1.32 255 255 255
0.2 -1.26 1.35 255 255 255
0.2 -1.26 1.38 255 255 255
0.2 -1.26 1.41 255 255 255
0.2 -1.26 1.44 255 255 255
0.2 -1.26 1.47 255 255 255
0.2 -1.26 1.5 255 255 255
0.2 -1.26 1.53 255 255 255
0.2 -1.26 1.56 255 255 255
0.2 -1.26 1.59 255 255 255
0.2 -1.23 1.41 255 255 255
0.2 -1.23 1.44 255 255 255
0.2 -1.23 1.47 255 255 255
0.2 -1.23 1.5 255 255 255
0.2 -1.23 1.53 255 255 255
0.2 -1.23 1.56 255 255 255
0.2 -1.23 1.59 255 255 255
0.2 -1.2 1.44 255 255 255
0.2 -1.2 1.47 255 255 255
0.2 -1.2 1.5 255 255 255
0.2 -1.2 1.53 255 255 255
0.2 -1.2 1.56 255 255 255
0.2 -1.17 1.44 255 255 255
0.2 -1.17 1.47 255 255 255
0.2 -1.17 1.5 255 255 255
0.2 -1.17 1.53 255 255 255
0.2 -1.17 1.56 255 255 255
0.23 -1.65 0 255 255 255
0.23 -1.65 0.03 255 255 255
0.23 -1.65 0.06 255 255 255
0.23 -1.65 0.09 255 255 255
0.23 -1.62 0 255 255 255
0.23 -1.62 0.03 255 255 255
0.23 -1.62 0.06 255 255 255
0.23 -1.62 0.09 255 255 255
0.23 -1.62 0.12 255 255 255
0.23 -1.59 0 255 255 255
0.23 -1.59 0.03 255 255 255
0.23 -1.59 0.06 255 255 255
0.23 -1.59 0.09 255 255 255
0.23 -1.59 0.12 255 255 255
0.23 -1.59 0.15 255 255 255
0.23 -1.59 0.18 255 255 255
0.23 -1.59 0.45 255 255 255
0.23 -1.56 0.12 255 255 255
0.23 -1.56 0.15 255 255 255
0.23 -1.56 0.18 255 255 255
0.23 -1.56 0.21 255 255 255
0.23 -1.56 0.24 255 255 255
0.23 -1.56 0.27 255 255 255
0.23 -1.56 0.3 255 255 255
0.23 -1.56 0.33 255 255 255
0.23 -1.56 0.39 255 255 255
0.23 -1.56 0.42 255 255 255
0.23 -1.56 0.45 255 255 255
0.23 -1.56 0.48 255 255 255
0.23 -1.56 0.51 255 255 255
0.23 -1.56 0.54 255 255 255
0.23 -1.56 0.84 255 255 255
0.23 -1.56 0.87 255 255 255
0.23 -1.56 0.9 255 255 255
0.23 -1.56 0.93 255 255 255
0.23 -1.56 0.96 255 255 255
0.23 -1.56 0.99 255 255 255
0.23 -1.56 1.02 255 255 255
0.23 -1.56 1.05 255 255 255
0.23 -1.56 1.08 255 255 255
0.23 -1.56 1.11 255 255 255
0.23 -1.56 1.14 255 255 255
0.23 -1.56 1.17 255 255 255
0.23 -1.56 1.2 255 255 255
0.23 -1.56 1.23 255 255 255
0.23 -1.53 0.18 255 255 255
0.23 -1.53 0.21 255 255 255
0.23 -1.53 0.24 255 255 255
0.23 -1.53 0.27 255 255 255
0.23 -1.53 0.3 255 255 255
0.23 -1.53 0.33 255 255 255
0.23 -1.53 0.36 255 255 255
0.23 -1.53 0.39 255 255 255
0.23 -1.53 0.42 255 255 255
0.23 -1.53 0.45 255 255 255
0.23 -1.53 0.48 255 255 255
0.23 -1.53 0.51 255 255 255
0.23 -1.53 0.54 255 255 255
0.23 -1.53 0.57 255 255 255
0.23 -1.53 0.6 255 255 255
0.23 -1.53 0.63 255 255 255
0.23 -1.53 0.66 255 255 255
0.23 -1.53 0.69 255 255 255
0.23 -1.53 0.72 255 255 255
0.23 -1.53 0.75 255 255 255
0.23 -1.53 0.78 255 255 255
0.23 -1.53 0.81 255 255 255
0.23 -1.53 0.84 255 255 255
0.23 -1.53 0.87 255 255 255
0.23 -1.53 0.9 255 255 255
0.23 -1.53 0.93 255 255 255
0.23 -1.53 0.96 255 255 255
0.23 -1.53 0.99 255 255 255
0.23 -1.53 1.02 255 255 255
0.23 -1.53 1.05 255 255 255
0.23 -1.53 1.08 255 255 255
0.23 -1.53 1.11 255 255 255
0.23 -1.53 1.14 255 255 255
0.23 -1.53 1.17 255 255 255
0.23 -1.53 1.2 255 255 255
0.23 -1.53 1.23 255 255 255
0.23 -1.53 1.26 255 255 255
0.23 -1.5 0.24 255 255 255
0.23 -1.5 0.27 255 255 255
0.23 -1.5 0.3 255 255 255
0.23 -1.5 0.33 255 255 255
0.23 -1.5 0.36 255 255 255
0.23 -1.5 0.39 255 255 255
0.23 -1.5 0.42 255 255 255
0.23 -1.5 0.45 255 255 255
0.23 -1.5 0.48 255 255 255
0.23 -1.5 0.51 255 255 255
0.23 -1.5 0.54 255 255 255
0.23 -1.5 0.57 255 255 255
0.23 -1.5 0.6 255 255 255
0.23 -1.5 0.63 255 255 255
0.23 -1.5 0.66 255 255 255
0.23 -1.5 0.69 255 255 255
0.23 -1.5 0.72 255 255 255
0.23 -1.5 0.75 255 255 255
0.23 -1.5 0.78 255 255 255
0.23 -1.5 0.81 255 255 255
0.23 -1.5 0.84 255 255 255
0.23 -1.5 0.87 255 255 255
0.23 -1.5 0.9 255 255 255
0.23 -1.5 0.93 255 255 255
0.23 -1.5 0.96 255 255 255
0.23 -1.5 0.99 255 255 255
0.23 -1.5 1.02 255 255 255
0.23 -1.5 1.05 255 255 255
0.23 -1.5 1.08 255 255 255
0.23 -1.5 1.11 255 255 255
0.23 -1.5 1.14 255 255 255
0.23 -1.5 1.17 255 255 255
0.23 -1.5 1.2 255 255 255
0.23 -1.5 1.23 255 255 255
0.23 -1.5 1.26 255 255 255
0.23 -1.5 1.29 255 255 255
0.23 -1.47 0.33 255 255 255
0.23 -1.47 0.36 255 255 255
0.23 -1.47 0.39 255 255 255
0.23 -1.47 0.42 255 255 255
0.23 -1.47 0.45 255 255 255
0.23 -1.47 0.48 255 255 255
0.23 -1.47 0.51 255 255 255
0.23 -1.47 0.54 255 255 255
0.23 -1.47 0.57 255 255 255
0.23 -1.47 0.6 255 255 255
0.23 -1.47 0.63 255 255 255
0.23 -1.47 0.66 255 255 255
0.23 -1.47 0.69 255 255 255
0.23 -1.47 0.72 255 255 255
0.23 -1.47 0.75 255 255 255
0.23 -1.47 0.78 255 255 255
0.23 -1.47 0.81 255 255 255
0.23 -1.47 0.84 255 255 255
0.23 -1.47 0.87 255 255 255
0.23 -1.47 0.9 255 255 255
0.23 -1.47 0.93 255 255 255
0.23 -1.47 0.96 255 255 255
0.23 -1.47 0.99 255 255 255
0.23 -1.47 1.02 255 255 255
0.23 -1.47 1.05 255 255 255
0.23 -1.47 1.08 255 255 255
0.23 -1.47 1.11 255 255 255
0.23 -1.47 1.14 255 255 255
0.23 -1.47 1.17 255 255 255
0.23 -1.47 1.2 255 255 255
0.23 -1.47 1.23 255 255 255
0.23 -1.47 1.26 255 255 255
0.23 -1.47 1.29 255 255 255
0.23 -1.47 1.32 255 255 255
0.23 -1.44 0.39 255 255 255
0.23 -1.44 0.42 255 255 255
0.23 -1.44 0.45 255 255 255
0.23 -1.44 0.48 255 255 255
0.23 -1.44 0.51 255 255 255
0.23 -1.44 0.54 255 255 255
0.23 -1.44 0.57 255 255 255
0.23 -1.44 0.6 255 255 255
0.23 -1.44 0.63 255 255 255
0.23 -1.44 0.66 255 255 255
0.23 -1.44 0.69 255 255 255
0.23 -1.44 0.72 255 255 255
0.23 -1.44 0.75 255 255 255
0.23 -1.44 0.78 255 255 255
0.23 -1.44 0.81 255 255 255
0.23 -1.44 0.84 255 255 255
0.23 -1.44 0.87 255 255 255
0.23 -1.44 0.9 255 255 255
0.23 -1.44 0.93 255 255 255
0.23 -1.44 0.96 255 255 255
0.23 -1.44 0.99 255 255 255
0.23 -1.44 1.02 255 255 255
0.23 -1.44 1.05 255 255 255
0.23 -1.44 1.08 255 255 255
0.23 -1.44 1.11 255 255 255
0.23 -1.44 1.14 255 255 255
0.23 -1.44 1.17 255 255 255
0.23 -1.44 1.2 255 255 255
0.23 -1.44 1.23 255 255 255
0.23 -1.44 1.26 255 255 255
0.23 -1.44 1.29 255 255 255
0.23 -1.44 1.32 255 255 255
0.23 -1.41 0.39 255 255 255
0.23 -1.41 0.42 255 255 255
0.23 -1.41 0.45 255 255 255
0.23 -1.41 0.48 255 255 255
0.23 -1.41 0.51 255 255 255
0.23 -1.41 0.54 255 255 255
0.23 -1.41 0.57 255 255 255
0.23 -1.41 0.6 255 255 255
0.23 -1.41 0.63 255 255 255
0.23 -1.41 0.66 255 255 255
0.23 -1.41 0.69 255 255 255
0.23 -1.41 0.72 255 255 255
0.23 -1.41 0.75 255 255 255
0.23 -1.41 0.78 255 255 255
0.23 -1.41 0.81 255 255 255
0.23 -1.41 0.84 255 255 255
0.23 -1.41 0.87 255 255 255
0.23 -1.41 0.9 255 255 255
0.23 -1.41 0.93 255 255 255
0.23 -1.41 0.96 255 255 255
0.23 -1.41 0.99 255 255 255
0.23 -1.41 1.02 255 255 255
0.23 -1.41 1.05 255 255 255
0.23 -1.41 1.08 255 255 255
0.23 -1.41 1.11 255 255 255
0.23 -1.41 1.14 255 255 255
0.23 -1.41 1.17 255 255 255
0.23 -1.41 1.2 255 255 255
0.23 -1.41 1.23 255 255 255
0.23 -1.41 1.26 255 255 255
0.23 -1.41 1.29 255 255 255
0.23 -1.41 1.32 255 255 255
0.23 -1.41 1.35 255 255 255
0.23 -1.38 0.39 255 255 255
0.23 -1.38 0.42 255 255 255
0.23 -1.38 0.45 255 255 255
0.23 -1.38 0.48 255 255 255
0.23 -1.38 0.51 255 255 255
0.23 -1.38 0.54 255 255 255
0.23 -1.38 0.57 255 255 255
0.23 -1.38 0.6 255 255 255
0.23 -1.38 0.63 255 255 255
0.23 -1.38 0.66 255 255 255
0.23 -1.38 0.69 255 255 255
0.23 -1.38 0.72 255 255 255
0.23 -1.38 0.75 255 255 255
0.23 -1.38 0.78 255 255 255
0.23 -1.38 0.81 255 255 255
0.23 -1.38 0.84 255 255 255
0.23 -1.38 0.87 255 255 255
0.23 -1.38 0.9 255 255 255
0.23 -1.38 0.93 255 255 255
0.23 -1.38 0.96 255 255 255
0.23 -1.38 0.99 255 255 255
0.23 -1.38 1.02 255 255 255
0.23 -1.38 1.05 255 255 255
0.23 -1.38 1.08 255 255 255
0.23 -1.38 1.11 255 255 255
0.23 -1.38 1.14 255 255 255
0.23 -1.38 1.17 255 255 255
0.23 -1.38 1.2 255 255 255
0.23 -1.38 1.23 255 255 255
0.23 -1.38 1.26 255 255 255
0.23 -1.38 1.29 255 255 255
0.23 -1.38 1.32 255 255 255
0.23 -1.38 1.35 255 255 255
0.23 -1.38 1.38 255 255 255
0.23 -1.38 1.41 255 255 255
0.23 -1.35 0.45 255 255 255
0.23 -1.35 0.48 255 255 255
0.23 -1.35 0.51 255 255 255
0.23 -1.35 0.54 255 255 255
0.23 -1.35 0.57 255 255 255
0.23 -1.35 0.6 255 255 255
0.23 -1.35 0.63 255 255 255
0.23 -1.35 0.66 255 255 255
0.23 -1.35 0.69 255 255 255
0.23 -1.35 0.72 255 255 255
0.23 -1.35 0.75 255 255 255
0.23 -1.35 0.78 255 255 255
0.23 -1.35 0.81 255 255 255
0.23 -1.35 0.84 255 255 255
0.23 -1.35 0.87 255 255 255
0.23 -1.35 0.9 255 255 255
0.23 -1.35 0.93 255 255 255
0.23 -1.35 0.96 255 255 255
0.23 -1.35 0.99 255 255 255
0.23 -1.35 1.02 255 255 255
0.23 -1.35 1.05 255 255 255
0.23 -1.35 1.08 255 255 255
0.23 -1.35 1.11 255 255 255
0.23 -1.35 1.14 255 255 255
0.23 -1.35 1.17 255 255 255
0.23 -1.35 1.2 255 255 255
0.23 -1.35 1.23 255 255 255
0.23 -1.35 1.26 255 255 255
0.23 -1.35 1.29 255 255 255
0.23 -1.35 1.32 255 255 255
0.23 -1.35 1.35 255 255 255
0.23 -1.35 1.38 255 255 255
0.23 -1.35 1.41 255 255 255
0.23 -1.35 1.44 255 255 255
0.23 -1.35 1.47 255 255 255
0.23 -1.35 1.5 255 255 255
0.23 -1.35 1.53 255 255 255
0.23 -1.32 0.63 255 255 255
0.23 -1.32 0.66 255 255 255
0.23 -1.32 0.69 255 255 255
0.23 -1.32 0.72 255 255 255
0.23 -1.32 0.75 255 255 255
0.23 -1.32 0.78 255 255 255
0.23 -1.32 0.81 255 255 255
0.23 -1.32 0.84 255 255 255
0.23 -1.32 0.87 255 255 255
0.23 -1.32 0.9 255 255 255
0.23 -1.32 0.93 255 255 255
0.23 -1.32 1.05 255 255 255
0.23 -1.32 1.08 255 255 255
0.23 -1.32 1.11 255 255 255
0.23 -1.32 1.14 255 255 255
0.23 -1.32 1.17 255 255 255
0.23 -1.32 1.2 255 255 255
0.23 -1.32 1.23 255 255 255
0.23 -1.32 1.26 255 255 255
0.23 -1.32 1.29 255 255 255
0.23 -1.32 1.32 255 255 255
0.23 -1.32 1.35 255 255 255
0.23 -1.32 1.38 255 255 255
0.23 -1.32 1.41 255 255 255
0.23 -1.32 1.44 255 255 255
0.23 -1.32 1.47 255 255 255
0.23 -1.32 1.5 255 255 255
0.23 -1.32 1.53 255 255 255
0.23 -1.29 0.69 255 255 255
0.23 -1.29 0.72 255 255 255
0.23 -1.29 0.75 255 255 255
0.23 -1.29 0.78 255 255 255
0.23 -1.29 0.81 255 255 255
0.23 -1.29 0.84 255 255 255
0.23 -1.29 1.14 255 255 255
0.23 -1.29 1.17 255 255 255
0.23 -1.29 1.2 255 255 255
0.23 -1.29 1.23 255 255 255
0.23 -1.29 1.26 255 255 255
0.23 -1.29 1.29 255 255 255
0.23 -1.29 1.32 255 255 255
0.23 -1.29 1.35 255 255 255
0.23 -1.29 1.38 255 255 255
0.23 -1.29 1.41 255 255 255
0.23 -1.29 1.44 255 255 255
0.23 -1.29 1.47 255 255 255
0.23 -1.29 1.5 255 255 255
0.23 -1.29 1.53 255 255 255
0.23 -1.29 1.56 255 255 255
0.23 -1.29 1.59 255 255 255
0.23 -1.26 1.2 255 255 255
0.23 -1.26 1.23 255 255 255
0.23 -1.26 1.26 255 255 255
0.23 -1.26 1.29 255 255 255
0.23 -1.26 1.32 255 255 255
0.23 -1.26 1.35 255 255 255
0.23 -1.26 1.38 255 255 255
0.23 -1.26 1.41 255 255 255
0.23 -1.26 1.44 255 255 255
0.23 -1.26 1.47 255 255 255
0.23 -1.26 1.5 255 255 255
0.23 -1.26 1.53 255 255 255
0.23 -1.26 1.56 255 255 255
0.23 -1.26 1.59 255 255 255
0.23 -1.23 1.47 255 255 255
0.23 -1.23 1.5 255 255 255
0.23 -1.23 1.53 255 255 255
0.23 -1.23 1.56 255 255 255
0.23 -1.2 1.47 255 255 255
0.23 -1.2 1.5 255 255 255
0.23 -1.2 1.53 255 255 255
0.23 -1.2 1.56 255 255 255
0.23 -1.17 1.47 255 255 255
0.23 -1.17 1.5 255 255 255
0.23 -1.17 1.53 255 255 255
0.23 -1.17 1.56 255 255 255
0.26 -1.62 0 255 255 255
0.26 -1.62 0.03 255 255 255
0.26 -1.62 0.06 255 255 255
0.26 -1.62 0.09 255 255 255
0.26 -1.62 0.12 255 255 255
0.26 -1.59 0.03 255 255 255
0.26 -1.59 0.06 255 255 255
0.26 -1.59 0.09 255 255 255
0.26 -1.59 0.12 255 255 255
0.26 -1.59 0.15 255 255 255
0.26 -1.59 0.18 255 255 255
0.26 -1.59 0.21 255 255 255
0.26 -1.59 0.45 255 255 255
0.26 -1.59 0.48 255 255 255
0.26 -1.59 0.99 255 255 255
0.26 -1.59 1.02 255 255 255
0.26 -1.59 1.08 255 255 255
0.26 -1.56 0.15 255 255 255
0.26 -1.56 0.18 255 255 255
0.26 -1.56 0.21 255 255 255
0.26 -1.56 0.24 255 255 255
0.26 -1.56 0.27 255 255 255
0.26 -1.56 0.3 255 255 255
0.26 -1.56 0.33 255 255 255
0.26 -1.56 0.36 255 255 255
0.26 -1.56 0.39 255 255 255
0.26 -1.56 0.42 255 255 255
0.26 -1.56 0.45 255 255 255
0.26 -1.56 0.48 255 255 255
0.26 -1.56 0.51 255 255 255
0.26 -1.56 0.54 255 255 255
0.26 -1.56 0.87 255 255 255
0.26 -1.56 0.9 255 255 255
0.26 -1.56 0.93 255 255 255
0.26 -1.56 0.96 255 255 255
0.26 -1.56 0.99 255 255 255
0.26 -1.56 1.02 255 255 255
0.26 -1.56 1.05 255 255 255
0.26 -1.56 1.08 255 255 255
0.26 -1.56 1.11 255 255 255
0.26 -1.56 1.14 255 255 255
0.26 -1.56 1.17 255 255 255
0.26 -1.56 1.2 255 255 255
0.26 -1.56 1.23 255 255 255
0.26 -1.53 0.21 255 255 255
0.26 -1.53 0.24 255 255 255
0.26 -1.53 0.27 255 255 255
0.26 -1.53 0.3 255 255 255
0.26 -1.53 0.33 255 255 255
0.26 -1.53 0.36 255 255 255
0.26 -1.53 0.39 255 255 255
0.26 -1.53 0.42 255 255 255
0.26 -1.53 0.45 255 255 255
0.26 -1.53 0.48 255 255 255
0.26 -1.53 0.51 255 255 255
0.26 -1.53 0.54 255 255 255
0.26 -1.53 0.57 255 255 255
0.26 -1.53 0.6 255 255 255
0.26 -1.53 0.63 255 255 255
0.26 -1.53 0.66 255 255 255
0.26 -1.53 0.69 255 255 255
0.26 -1.53 0.72 255 255 255
0.26 -1.53 0.75 255 255 255
0.26 -1.53 0.78 255 255 255
0.26 -1.53 0.81 255 255 255
0.26 -1.53 0.84 255 255 255
0.26 -1.53 0.87 255 255 255
0.26 -1.53 0.9 255 255 255
0.26 -1.53 0.93 255 255 255
0.26 -1.53 0.96 255 255 255
0.26 -1.53 0.99 255 255 255
0.26 -1.53 1.02 255 255 255
0.26 -1.53 1.05 255 255 255
0.26 -1.53 1.08 255 255 255
0.26 -1.53 1.11 255 255 255
0.26 -1.53 1.14 255 255 255
0.26 -1.53 1.17 255 255 255
0.26 -1.53 1.2 255 255 255
0.26 -1.53 1.23 255 255 255
0.26 -1.53 1.26 255 255 255
0.26 -1.5 0.24 255 255 255
0.26 -1.5 0.27 255 255 255
0.26 -1.5 0.3 255 255 255
0.26 -1.5 0.33 255 255 255
0.26 -1.5 0.36 255 255 255
0.26 -1.5 0.39 255 255 255
0.26 -1.5 0.42 255 255 255
0.26 -1.5 0.45 255 255 255
0.26 -1.5 0.48 255 255 255
0.26 -1.5 0.51 255 255 255
0.26 -1.5 0.54 255 255 255
0.26 -1.5 0.57 255 255 255
0.26 -1.5 0.6 255 255 255
0.26 -1.5 0.63 255 255 255
0.26 -1.5 0.66 255 255 255
0.26 -1.5 0.69 255 255 255
0.26 -1.5 0.72 255 255 255
0.26 -1.5 0.75 255 255 255
0.26 -1.5 0.78 255 255 255
0.26 -1.5 0.81 255 255 255
0.26 -1.5 0.84 255 255 255
0.26 -1.5 0.87 255 255 255
0.26 -1.5 0.9 255 255 255
0.26 -1.5 0.93 255 255 255
0.26 -1.5 0.96 255 255 255
0.26 -1.5 0.99 255 255 255
0.26 -1.5 1.02 255 255 255
0.26 -1.5 1.05 255 255 255
0.26 -1.5 1.08 255 255 255
0.26 -1.5 1.11 255 255 255
0.26 -1.5 1.14 255 255 255
0.26 -1.5 1.17 255 255 255
0.26 -1.5 1.2 255 255 255
0.26 -1.5 1.23 255 255 255
0.26 -1.5 1.26 255 255 255
0.26 -1.5 1.29 255 255 255
0.26 -1.5 1.32 255 255 255
0.26 -1.47 0.27 255 255 255
0.26 -1.47 0.3 255 255 255
0.26 -1.47 0.33 255 255 255
0.26 -1.47 0.36 255 255 255
0.26 -1.47 0.39 255 255 255
0.26 -1.47 0.42 255 255 255
0.26 -1.47 0.45 255 255 255
0.26 -1.47 0.48 255 255 255
0.26 -1.47 0.51 255 255 255
0.26 -1.47 0.54 255 255 255
0.26 -1.47 0.57 255 255 255
0.26 -1.47 0.6 255 255 255
0.26 -1.47 0.63 255 255 255
0.26 -1.47 0.66 255 255 255
0.26 -1.47 0.69 255 255 255
0.26 -1.47 0.72 255 255 255
0.26 -1.47 0.75 255 255 255
0.26 -1.47 0.78 255 255 255
0.26 -1.47 0.81 255 255 255
0.26 -1.47 0.84 255 255 255
0.26 -1.47 0.87 255 255 255
0.26 -1.47 0.9 255 255 255
0.26 -1.47 0.93 255 255 255
0.26 -1.47 0.96 255 255 255
0.26 -1.47 0.99 255 255 255
0.26 -1.47 1.02 255 255 255
0.26 -1.47 1.05 255 255 255
0.26 -1.47 1.08 255 255 255
0.26 -1.47 1.11 255 255 255
0.26 -1.47 1.14 255 255 255
0.26 -1.47 1.17 255 255 255
0.26 -1.47 1.2 255 255 255
0.26 -1.47 1.23 255 255 255
0.26 -1.47 1.26 255 255 255
0.26 -1.47 1.29 255 255 255
0.26 -1.47 1.32 255 255 255
0.26 -1.44 0.42 255 255 255
0.26 -1.44 0.45 255 255 255
0.26 -1.44 0.48 255 255 255
0.26 -1.44 0.51 255 255 255
0.26 -1.44 0.54 255 255 255
0.26 -1.44 0.57 255 255 255
0.26 -1.44 0.6 255 255 255
0.26 -1.44 0.63 255 255 255
0.26 -1.44 0.66 255 255 255
0.26 -1.44 0.69 255 255 255
0.26 -1.44 0.72 255 255 255
0.26 -1.44 0.75 255 255 255
0.26 -1.44 0.78 255 255 255
0.26 -1.44 0.81 255 255 255
0.26 -1.44 0.84 255 255 255
0.26 -1.44 0.87 255 255 255
0.26 -1.44 0.9 255 255 255
0.26 -1.44 0.93 255 255 255
0.26 -1.44 0.96 255 255 255
0.26 -1.44 0.99 255 255 255
0.26 -1.44 1.02 255 255 255
0.26 -1.44 1.05 255 255 255
0.26 -1.44 1.08 255 255 255
0.26 -1.44 1.11 255 255 255
0.26 -1.44 1.14 255 255 255
0.26 -1.44 1.17 255 255 255
0.26 -1.44 1.2 255 255 255
0.26 -1.44 1.23 255 255 255
0.26 -1.44 1.26 255 255 255
0.26 -1.44 1.29 255 255 255
0.26 -1.44 1.32 255 255 255
0.26 -1.44 1.35 255 255 255
0.26 -1.41 0.42 255 255 255
0.26 -1.41 0.45 255 255 255
0.26 -1.41 0.48 255 255 255
0.26 -1.41 0.51 255 255 255
0.26 -1.41 0.54 255 255 255
0.26 -1.41 0.57 255 255 255
0.26 -1.41 0.6 255 255 255
0.26 -1.41 0.63 255 255 255
0.26 -1.41 0.66 255 255 255
0.26 -1.41 0.69 255 255 255
0.26 -1.41 0.72 255 255 255
0.26 -1.41 0.75 255 255 255
0.26 -1.41 0.78 255 255 255
0.26 -1.41 0.81 255 255 255
0.26 -1.41 0.84 255 255 255
0.26 -1.41 0.87 255 255 255
0.26 -1.41 0.9 255 255 255
0.26 -1.41 0.93 255 255 255
0.26 -1.41 0.96 255 255 255
0.26 -1.41 0.99 255 255 255
0.26 -1.41 1.02 255 255 255
0.26 -1.41 1.05 255 255 255
0.26 -1.41 1.08 255 255 255
0.26 -1.41 1.11 255 255 255
0.26 -1.41 1.14 255 255 255
0.26 -1.41 1.17 255 255 255
0.26 -1.41 1.2 255 255 255
0.26 -1.41 1.23 255 255 255
0.26 -1.41 1.26 255 255 255
0.26 -1.41 1.29 255 255 255
0.26 -1.41 1.32 255 255 255
0.26 -1.41 1.35 255 255 255
0.26 -1.41 1.38 255 255 255
0.26 -1.38 0.42 255 255 255
0.26 -1.38 0.45 255 255 255
0.26 -1.38 0.48 255 255 255
0.26 -1.38 0.51 255 255 255
0.26 -1.38 0.54 255 255 255
0.26 -1.38 0.57 255 255 255
0.26 -1.38 0.6 255 255 255
0.26 -1.38 0.63 255 255 255
0.26 -1.38 0.66 255 255 255
0.26 -1.38 0.69 255 255 255
0.26 -1.38 0.72 255 255 255
0.26 -1.38 0.75 255 255 255
0.26 -1.38 0.78 255 255 255
0.26 -1.38 0.81 255 255 255
0.26 -1.38 0.84 255 255 255
0.26 -1.38 0.87 255 255 255
0.26 -1.38 0.9 255 255 255
0.26 -1.38 0.93 255 255 255
0.26 -1.38 0.96 255 255 255
0.26 -1.38 0.99 255 255 255
0.26 -1.38 1.02 255 255 255
0.26 -1.38 1.05 255 255 255
0.26 -1.38 1.08 255 255 255
0.26 -1.38 1.11 255 255 255
0.26 -1.38 1.14 255 255 255
0.26 -1.38 1.17 255 255 255
0.26 -1.38 1.2 255 255 255
0.26 -1.38 1.23 255 255 255
0.26 -1.38 1.26 255 255 255
0.26 -1.38 1.29 255 255 255
0.26 -1.38 1.32 255 255 255
0.26 -1.38 1.35 255 255 255
0.26 -1.38 1.38 255 255 255
0.26 -1.38 1.41 255 255 255
0.26 -1.35 0.39 255 255 255
0.26 -1.35 0.42 255 255 255
0.26 -1.35 0.45 255 255 255
0.26 -1.35 0.48 255 255 255
0.26 -1.35 0.51 255 255 255
0.26 -1.35 0.54 255 255 255
0.26 -1.35 0.57 255 255 255
0.26 -1.35 0.6 255 255 255
0.26 -1.35 0.63 255 255 255
0.26 -1.35 0.66 255 255 255
0.26 -1.35 0.69 255 255 255
0.26 -1.35 0.72 255 255 255
0.26 -1.35 0.75 255 255 255
0.26 -1.35 0.78 255 255 255
0.26 -1.35 0.81 255 255 255
0.26 -1.35 0.84 255 255 255
0.26 -1.35 0.87 255 255 255
0.26 -1.35 0.9 255 255 255
0.26 -1.35 0.93 255 255 255
0.26 -1.35 0.96 255 255 255
0.26 -1.35 0.99 255 255 255
0.26 -1.35 1.02 255 255 255
0.26 -1.35 1.05 255 255 255
0.26 -1.35 1.08 255 255 255
0.26 -1.35 1.11 255 255 255
0.26 -1.35 1.14 255 255 255
0.26 -1.35 1.17 255 255 255
0.26 -1.35 1.2 255 255 255
0.26 -1.35 1.23 255 255 255
0.26 -1.35 1.26 255 255 255
0.26 -1.35 1.29 255 255 255
0.26 -1.35 1.32 255 255 255
0.26 -1.35 1.35 255 255 255
0.26 -1.35 1.38 255 255 255
0.26 -1.35 1.41 255 255 255
0.26 -1.32 0.45 255 255 255
0.26 -1.32 0.48 255 255 255
0.26 -1.32 0.51 255 255 255
0.26 -1.32 0.54 255 255 255
0.26 -1.32 0.57 255 255 255
0.26 -1.32 0.6 255 255 255
0.26 -1.32 0.63 255 255 255
0.26 -1.32 0.66 255 255 255
0.26 -1.32 0.69 255 255 255
0.26 -1.32 0.72 255 255 255
0.26 -1.32 0.75 255 255 255
0.26 -1.32 0.78 255 255 255
0.26 -1.32 0.81 255 255 255
0.26 -1.32 0.84 255 255 255
0.26 -1.32 0.87 255 255 255
0.26 -1.32 0.9 255 255 255
0.26 -1.32 0.93 255 255 255
0.26 -1.32 1.08 255 255 255
0.26 -1.32 1.11 255 255 255
0.26 -1.32 1.14 255 255 255
0.26 -1.32 1.17 255 255 255
0.26 -1.32 1.2 255 255 255
0.26 -1.32 1.23 255 255 255
0.26 -1.32 1.26 255 255 255
0.26 -1.32 1.29 255 255 255
0.26 -1.32 1.32 255 255 255
0.26 -1.32 1.35 255 255 255
0.26 -1.32 1.38 255 255 255
0.26 -1.32 1.41 255 255 255
0.26 -1.32 1.44 255 255 255
0.26 -1.32 1.47 255 255 255
0.26 -1.32 1.5 255 255 255
0.26 -1.29 0.63 255 255 255
0.26 -1.29 0.66 255 255 255
0.26 -1.29 0.69 255 255 255
0.26 -1.29 0.72 255 255 255
0.26 -1.29 0.75 255 255 255
0.26 -1.29 0.78 255 255 255
0.26 -1.29 0.81 255 255 255
0.26 -1.29 0.84 255 255 255
0.26 -1.29 1.17 255 255 255
0.26 -1.29 1.2 255 255 255
0.26 -1.29 1.23 255 255 255
0.26 -1.29 1.26 255 255 255
0.26 -1.29 1.29 255 255 255
0.26 -1.29 1.32 255 255 255
0.26 -1.29 1.35 255 255 255
0.26 -1.29 1.38 255 255 255
0.26 -1.29 1.41 255 255 255
0.26 -1.29 1.44 255 255 255
0.26 -1.29 1.5 255 255 255
0.26 -1.29 1.53 255 255 255
0.26 -1.29 1.56 255 255 255
0.26 -1.26 1.23 255 255 255
0.26 -1.26 1.26 255 255 255
0.26 -1.26 1.29 255 255 255
0.26 -1.26 1.32 255 255 255
0.26 -1.26 1.35 255 255 255
0.26 -1.26 1.38 255 255 255
0.26 -1.26 1.41 255 255 255
0.26 -1.26 1.5 255 255 255
0.26 -1.26 1.53 255 255 255
0.26 -1.26 1.56 255 255 255
0.26 -1.26 1.59 255 255 255
0.26 -1.23 1.47 255 255 255
0.26 -1.23 1.5 255 255 255
0.26 -1.23 1.53 255 255 255
0.26 -1.23 1.56 255 255 255
0.26 -1.23 1.59 255 255 255
0.26 -1.2 1.47 255 255 255
0.26 -1.2 1.5 255 255 255
0.26 -1.2 1.53 255 255 255
0.26 -1.2 1.56 255 255 255
0.26 -1.2 1.59 255 255 255
0.26 -1.17 1.5 255 255 255
0.26 -1.17 1.53 255 255 255
0.26 -1.17 1.56 255 255 255
0.29 -1.59 0.99 255 255 255
0.29 -1.59 1.02 255 255 255
0.29 -1.59 1.05 255 255 255
0.29 -1.59 1.08 255 255 255
0.29 -1.56 0.3 255 255 255
0.29 -1.56 0.42 255 255 255
0.29 -1.56 0.45 255 255 255
0.29 -1.56 0.48 255 255 255
0.29 -1.56 0.51 255 255 255
0.29 -1.56 0.87 255 255 255
0.29 -1.56 0.9 255 255 255
0.29 -1.56 0.93 255 255 255
0.29 -1.56 0.96 255 255 255
0.29 -1.56 0.99 255 255 255
0.29 -1.56 1.02 255 255 255
0.29 -1.56 1.05 255 255 255
0.29 -1.56 1.08 255 255 255
0.29 -1.56 1.11 255 255 255
0.29 -1.56 1.14 255 255 255
0.29 -1.56 1.17 255 255 255
0.29 -1.56 1.2 255 255 255
0.29 -1.53 0.3 255 255 255
0.29 -1.53 0.33 255 255 255
0.29 -1.53 0.36 255 255 255
0.29 -1.53 0.39 255 255 255
0.29 -1.53 0.42 255 255 255
0.29 -1.53 0.45 255 255 255
0.29 -1.53 0.48 255 255 255
0.29 -1.53 0.51 255 255 255
0.29 -1.53 0.54 255 255 255
0.29 -1.53 0.57 255 255 255
0.29 -1.53 0.6 255 255 255
0.29 -1.53 0.63 255 255 255
0.29 -1.53 0.66 255 255 255
0.29 -1.53 0.69 255 255 255
0.29 -1.53 0.72 255 255 255
0.29 -1.53 0.75 255 255 255
0.29 -1.53 0.78 255 255 255
0.29 -1.53 0.81 255 255 255
0.29 -1.53 0.84 255 255 255
0.29 -1.53 0.87 255 255 255
0.29 -1.53 0.9 255 255 255
0.29 -1.53 0.93 255 255 255
0.29 -1.53 0.96 255 255 255
0.29 -1.53 0.99 255 255 255
0.29 -1.53 1.02 255 255 255
0.29 -1.53 1.05 255 255 255
0.29 -1.53 1.08 255 255 255
0.29 -1.53 1.11 255 255 255
0.29 -1.53 1.14 255 255 255
0.29 -1.53 1.17 255 255 255
0.29 -1.53 1.2 255 255 255
0.29 -1.53 1.23 255 255 255
0.29 -1.53 1.26 255 255 255
0.29 -1.53 1.29 255 255 255
0.29 -1.5 0.36 255 255 255
0.29 -1.5 0.39 255 255 255
0.29 -1.5 0.42 255 255 255
0.29 -1.5 0.45 255 255 255
0.29 -1.5 0.48 255 255 255
0.29 -1.5 0.51 255 255 255
0.29 -1.5 0.54 255 255 255
0.29 -1.5 0.57 255 255 255
0.29 -1.5 0.6 255 255 255
0.29 -1.5 0.63 255 255 255
0.29 -1.5 0.66 255 255 255
0.29 -1.5 0.69 255 255 255
0.29 -1.5 0.72 255 255 255
0.29 -1.5 0.75 255 255 255
0.29 -1.5 0.78 255 255 255
0.29 -1.5 0.81 255 255 255
0.29 -1.5 0.84 255 255 255
0.29 -1.5 0.87 255 255 255
0.29 -1.5 0.9 255 255 255
0.29 -1.5 0.93 255 255 255
0.29 -1.5 0.96 255 255 255
0.29 -1.5 0.99 255 255 255
0.29 -1.5 1.02 255 255 255
0.29 -1.5 1.05 255 255 255
0.29 -1.5 1.08 255 255 255
0.29 -1.5 1.11 255 255 255
0.29 -1.5 1.14 255 255 255
0.29 -1.5 1.17 255 255 255
0.29 -1.5 1.2 255 255 255
0.29 -1.5 1.23 255 255 255
0.29 -1.5 1.26 255 255 255
0.29 -1.5 1.29 255 255 255
0.29 -1.5 1.32 255 255 255
0.29 -1.47 0.45 255 255 255
0.29 -1.47 0.48 255 255 255
0.29 -1.47 0.51 255 255 255
0.29 -1.47 0.54 255 255 255
0.29 -1.47 0.57 255 255 255
0.29 -1.47 0.6 255 255 255
0.29 -1.47 0.63 255 255 255
0.29 -1.47 0.66 255 255 255
0.29 -1.47 0.69 255 255 255
0.29 -1.47 0.72 255 255 255
0.29 -1.47 0.75 255 255 255
0.29 -1.47 0.78 255 255 255
0.29 -1.47 0.81 255 255 255
0.29 -1.47 0.84 255 255 255
0.29 -1.47 0.87 255 255 255
0.29 -1.47 0.9 255 255 255
0.29 -1.47 0.93 255 255 255
0.29 -1.47 0.96 255 255 255
0.29 -1.47 0.99 255 255 255
0.29 -1.47 1.02 255 255 255
0.29 -1.47 1.05 255 255 255
0.29 -1.47 1.08 255 255 255
0.29 -1.47 1.11 255 255 255
0.29 -1.47 1.14 255 255 255
0.29 -1.47 1.17 255 255 255
0.29 -1.47 1.2 255 255 255
0.29 -1.47 1.23 255 255 255
0.29 -1.47 1.26 255 255 255
0.29 -1.47 1.29 255 255 255
0.29 -1.47 1.32 255 255 255
0.29 -1.47 1.35 255 255 255
0.29 -1.44 0.45 255 255 255
0.29 -1.44 0.48 255 255 255
0.29 -1.44 0.51 255 255 255
0.29 -1.44 0.54 255 255 255
0.29 -1.44 0.57 255 255 255
0.29 -1.44 0.6 255 255 255
0.29 -1.44 0.63 255 255 255
0.29 -1.44 0.66 255 255 255
0.29 -1.44 0.69 255 255 255
0.29 -1.44 0.72 255 255 255
0.29 -1.44 0.75 255 255 255
0.29 -1.44 0.78 255 255 255
0.29 -1.44 0.81 255 255 255
0.29 -1.44 0.84 255 255 255
0.29 -1.44 0.87 255 255 255
0.29 -1.44 0.9 255 255 255
0.29 -1.44 0.93 255 255 255
0.29 -1.44 0.96 255 255 255
0.29 -1.44 0.99 255 255 255
0.29 -1.44 1.02 255 255 255
0.29 -1.44 1.05 255 255 255
0.29 -1.44 1.08 255 255 255
0.29 -1.44 1.11 255 255 255
0.29 -1.44 1.14 255 255 255
0.29 -1.44 1.17 255 255 255
0.29 -1.44 1.2 255 255 255
0.29 -1.44 1.23 255 255 255
0.29 -1.44 1.26 255 255 255
0.29 -1.44 1.29 255 255 255
0.29 -1.44 1.32 255 255 255
0.29 -1.44 1.35 255 255 255
0.29 -1.44 1.38 255 255 255
0.29 -1.41 0.45 255 255 255
0.29 -1.41 0.48 255 255 255
0.29 -1.41 0.51 255 255 255
0.29 -1.41 0.54 255 255 255
0.29 -1.41 0.57 255 255 255
0.29 -1.41 0.6 255 255 255
0.29 -1.41 0.63 255 255 255
0.29 -1.41 0.66 255 255 255
0.29 -1.41 0.69 255 255 255
0.29 -1.41 0.72 255 255 255
0.29 -1.41 0.75 255 255 255
0.29 -1.41 0.78 255 255 255
0.29 -1.41 0.81 255 255 255
0.29 -1.41 0.84 255 255 255
0.29 -1.41 0.87 255 255 255
0.29 -1.41 0.9 255 255 255
0.29 -1.41 0.93 255 255 255
0.29 -1.41 0.96 255 255 255
0.29 -1.41 0.99 255 255 255
0.29 -1.41 1.02 255 255 255
0.29 -1.41 1.05 255 255 255
0.29 -1.41 1.08 255 255 255
0.29 -1.41 1.11 255 255 255
0.29 -1.41 1.14 255 255 255
0.29 -1.41 1.17 255 255 255
0.29 -1.41 1.2 255 255 255
0.29 -1.41 1.23 255 255 255
0.29 -1.41 1.26 255 255 255
0.29 -1.41 1.29 255 255 255
0.29 -1.41 1.32 255 255 255
0.29 -1.41 1.35 255 255 255
0.29 -1.41 1.38 255 255 255
0.29 -1.41 1.41 255 255 255
0.29 -1.38 0.42 255 255 255
0.29 -1.38 0.45 255 255 255
0.29 -1.38 0.48 255 255 255
0.29 -1.38 0.51 255 255 255
0.29 -1.38 0.54 255 255 255
0.29 -1.38 0.57 255 255 255
0.29 -1.38 0.6 255 255 255
0.29 -1.38 0.63 255 255 255
0.29 -1.38 0.66 255 255 255
0.29 -1.38 0.69 255 255 255
0.29 -1.38 0.72 255 255 255
0.29 -1.38 0.75 255 255 255
0.29 -1.38 0.78 255 255 255
0.29 -1.38 0.81 255 255 255
0.29 -1.38 0.84 255 255 255
0.29 -1.38 0.87 255 255 255
0.29 -1.38 0.9 255 255 255
0.29 -1.38 0.93 255 255 255
0.29 -1.38 0.96 255 255 255
0.29 -1.38 0.99 255 255 255
0.29 -1.38 1.02 255 255 255
0.29 -1.38 1.05 255 255 255
0.29 -1.38 1.08 255 255 255
0.29 -1.38 1.11 255 255 255
0.29 -1.38 1.14 255 255 255
0.29 -1.38 1.17 255 255 255
0.29 -1.38 1.2 255 255 255
0.29 -1.38 1.23 255 255 255
0.29 -1.38 1.26 255 255 255
0.29 -1.38 1.29 255 255 255
0.29 -1.38 1.32 255 255 255
0.29 -1.38 1.35 255 255 255
0.29 -1.38 1.38 255 255 255
0.29 -1.38 1.41 255 255 255
0.29 -1.35 0.39 255 255 255
0.29 -1.35 0.42 255 255 255
0.29 -1.35 0.45 255 255 255
0.29 -1.35 0.48 255 255 255
0.29 -1.35 0.51 255 255 255
0.29 -1.35 0.54 255 255 255
0.29 -1.35 0.57 255 255 255
0.29 -1.35 0.6 255 255 255
0.29 -1.35 0.63 255 255 255
0.29 -1.35 0.66 255 255 255
0.29 -1.35 0.69 255 255 255
0.29 -1.35 0.72 255 255 255
0.29 -1.35 0.75 255 255 255
0.29 -1.35 0.78 255 255 255
0.29 -1.35 0.81 255 255 255
0.29 -1.35 0.84 255 255 255
0.29 -1.35 0.87 255 255 255
0.29 -1.35 0.9 255 255 255
0.29 -1.35 0.93 255 255 255
0.29 -1.35 0.96 255 255 255
0.29 -1.35 0.99 255 255 255
0.29 -1.35 1.02 255 255 255
0.29 -1.35 1.05 255 255 255
0.29 -1.35 1.08 255 255 255
0.29 -1.35 1.11 255 255 255
0.29 -1.35 1.14 255 255 255
0.29 -1.35 1.17 255 255 255
0.29 -1.35 1.2 255 255 255
0.29 -1.35 1.23 255 255 255
0.29 -1.35 1.26 255 255 255
0.29 -1.35 1.29 255 255 255
0.29 -1.35 1.32 255 255 255
0.29 -1.35 1.35 255 255 255
0.29 -1.35 1.38 255 255 255
0.29 -1.35 1.41 255 255 255
0.29 -1.32 0.42 255 255 255
0.29 -1.32 0.45 255 255 255
0.29 -1.32 0.48 255 255 255
0.29 -1.32 0.51 255 255 255
0.29 -1.32 0.54 255 255 255
0.29 -1.32 0.57 255 255 255
0.29 -1.32 0.6 255 255 255
0.29 -1.32 0.63 255 255 255
0.29 -1.32 0.66 255 255 255
0.29 -1.32 0.69 255 255 255
0.29 -1.32 0.72 255 255 255
0.29 -1.32 0.75 255 255 255
0.29 -1.32 0.78 255 255 255
0.29 -1.32 0.81 255 255 255
0.29 -1.32 0.84 255 255 255
0.29 -1.32 0.87 255 255 255
0.29 -1.32 0.9 255 255 255
0.29 -1.32 0.93 255 255 255
0.29 -1.32 1.14 255 255 255
0.29 -1.32 1.17 255 255 255
0.29 -1.32 1.2 255 255 255
0.29 -1.32 1.23 255 255 255
0.29 -1.32 1.26 255 255 255
0.29 -1.32 1.29 255 255 255
0.29 -1.32 1.32 255 255 255
0.29 -1.32 1.35 255 255 255
0.29 -1.32 1.38 255 255 255
0.29 -1.32 1.41 255 255 255
0.29 -1.29 0.42 255 255 255
0.29 -1.29 0.45 255 255 255
0.29 -1.29 0.48 255 255 255
0.29 -1.29 0.51 255 255 255
0.29 -1.29 0.54 255 255 255
0.29 -1.29 0.6 255 255 255
0.29 -1.29 0.63 255 255 255
0.29 -1.29 0.66 255 255 255
0.29 -1.29 0.69 255 255 255
0.29 -1.29 0.72 255 255 255
0.29 -1.29 0.75 255 255 255
0.29 -1.29 0.78 255 255 255
0.29 -1.29 0.81 255 255 255
0.29 -1.29 0.84 255 255 255
0.29 -1.29 0.87 255 255 255
0.29 -1.29 1.2 255 255 255
0.29 -1.29 1.23 255 255 255
0.29 -1.29 1.26 255 255 255
0.29 -1.29 1.29 255 255 255
0.29 -1.29 1.32 255 255 255
0.29 -1.29 1.35 255 255 255
0.29 -1.29 1.38 255 255 255
0.29 -1.29 1.41 255 255 255
0.29 -1.29 1.5 255 255 255
0.29 -1.29 1.53 255 255 255
0.29 -1.26 1.26 255 255 255
0.29 -1.26 1.29 255 255 255
0.29 -1.26 1.32 255 255 255
0.29 -1.26 1.35 255 255 255
0.29 -1.26 1.38 255 255 255
0.29 -1.26 1.5 255 255 255
0.29 -1.26 1.53 255 255 255
0.29 -1.26 1.56 255 255 255
0.29 -1.23 1.5 255 255 255
0.29 -1.23 1.53 255 255 255
0.29 -1.23 1.56 255 255 255
0.29 -1.23 1.59 255 255 255
0.29 -1.2 1.53 255 255 255
0.29 -1.2 1.56 255 255 255
0.32 -1.56 0.45 255 255 255
0.32 -1.56 0.9 255 255 255
0.32 -1.56 0.93 255 255 255
0.32 -1.56 0.96 255 255 255
0.32 -1.56 0.99 255 255 255
0.32 -1.56 1.02 255 255 255
0.32 -1.56 1.05 255 255 255
0.32 -1.56 1.08 255 255 255
0.32 -1.56 1.11 255 255 255
0.32 -1.56 1.14 255 255 255
0.32 -1.56 1.17 255 255 255
0.32 -1.53 0.39 255 255 255
0.32 -1.53 0.42 255 255 255
0.32 -1.53 0.48 255 255 255
0.32 -1.53 0.51 255 255 255
0.32 -1.53 0.54 255 255 255
0.32 -1.53 0.57 255 255 255
0.32 -1.53 0.6 255 255 255
0.32 -1.53 0.63 255 255 255
0.32 -1.53 0.66 255 255 255
0.32 -1.53 0.69 255 255 255
0.32 -1.53 0.72 255 255 255
0.32 -1.53 0.75 255 255 255
0.32 -1.53 0.78 255 255 255
0.32 -1.53 0.81 255 255 255
0.32 -1.53 0.84 255 255 255
0.32 -1.53 0.87 255 255 255
0.32 -1.53 0.9 255 255 255
0.32 -1.53 0.93 255 255 255
0.32 -1.53 0.96 255 255 255
0.32 -1.53 0.99 255 255 255
0.32 -1.53 1.02 255 255 255
0.32 -1.53 1.05 255 255 255
0.32 -1.53 1.08 255 255 255
0.32 -1.53 1.11 255 255 255
0.32 -1.53 1.14 255 255 255
0.32 -1.53 1.17 255 255 255
0.32 -1.53 1.2 255 255 255
0.32 -1.53 1.23 255 255 255
0.32 -1.53 1.26 255 255 255
0.32 -1.5 0.48 255 255 255
0.32 -1.5 0.51 255 255 255
0.32 -1.5 0.54 255 255 255
0.32 -1.5 0.57 255 255 255
0.32 -1.5 0.6 255 255 255
0.32 -1.5 0.63 255 255 255
0.32 -1.5 0.66 255 255 255
0.32 -1.5 0.69 255 255 255
0.32 -1.5 0.72 255 255 255
0.32 -1.5 0.75 255 255 255
0.32 -1.5 0.78 255 255 255
0.32 -1.5 0.81 255 255 255
0.32 -1.5 0.84 255 255 255
0.32 -1.5 0.87 255 255 255
0.32 -1.5 0.9 255 255 255
0.32 -1.5 0.93 255 255 255
0.32 -1.5 0.96 255 255 255
0.32 -1.5 0.99 255 255 255
0.32 -1.5 1.02 255 255 255
0.32 -1.5 1.05 255 255 255
0.32 -1.5 1.08 255 255 255
0.32 -1.5 1.11 255 255 255
0.32 -1.5 1.14 255 255 255
0.32 -1.5 1.17 255 255 255
0.32 -1.5 1.2 255 255 255
0.32 -1.5 1.23 255 255 255
0.32 -1.5 1.26 255 255 255
0.32 -1.5 1.29 255 255 255
0.32 -1.5 1.32 255 255 255
0.32 -1.47 0.48 255 255 255
0.32 -1.47 0.51 255 255 255
0.32 -1.47 0.54 255 255 255
0.32 -1.47 0.57 255 255 255
0.32 -1.47 0.6 255 255 255
0.32 -1.47 0.63 255 255 255
0.32 -1.47 0.66 255 255 255
0.32 -1.47 0.69 255 255 255
0.32 -1.47 0.72 255 255 255
0.32 -1.47 0.75 255 255 255
0.32 -1.47 0.78 255 255 255
0.32 -1.47 0.81 255 255 255
0.32 -1.47 0.84 255 255 255
0.32 -1.47 0.87 255 255 255
0.32 -1.47 0.9 255 255 255
0.32 -1.47 0.93 255 255 255
0.32 -1.47 0.96 255 255 255
0.32 -1.47 0.99 255 255 255
0.32 -1.47 1.02 255 255 255
0.32 -1.47 1.05 255 255 255
0.32 -1.47 1.08 255 255 255
0.32 -1.47 1.11 255 255 255
0.32 -1.47 1.14 255 255 255
0.32 -1.47 1.17 255 255 255
0.32 -1.47 1.2 255 255 255
0.32 -1.47 1.23 255 255 255
0.32 -1.47 1.26 255 255 255
0.32 -1.47 1.29 255 255 255
0.32 -1.47 1.32 255 255 255
0.32 -1.47 1.35 255 255 255
0.32 -1.44 0.48 255 255 255
0.32 -1.44 0.51 255 255 255
0.32 -1.44 0.54 255 255 255
0.32 -1.44 0.57 255 255 255
0.32 -1.44 0.6 255 255 255
0.32 -1.44 0.63 255 255 255
0.32 -1.44 0.66 255 255 255
0.32 -1.44 0.69 255 255 255
0.32 -1.44 0.72 255 255 255
0.32 -1.44 0.75 255 255 255
0.32 -1.44 0.78 255 255 255
0.32 -1.44 0.81 255 255 255
0.32 -1.44 0.84 255 255 255
0.32 -1.44 0.87 255 255 255
0.32 -1.44 0.9 255 255 255
0.32 -1.44 0.93 255 255 255
0.32 -1.44 0.96 255 255 255
